ply
format ascii 1.0
element vertex 689
property double x
property double y
property double z
property uchar red
property uchar green
property uchar blue
end_header
3.7235235101543367 4.1769088404253125 -1.1451315223239362 86 41 22
4.0689182952046394 4.0634294711053371 -1.1101595750078559 22 17 47
4.0186591669917107 4.1660521989688277 -1.0912530710920691 153 142 140
3.8798243876080960 2.7169520435854793 -1.1245589144527912 117 110 100
3.7999674656894058 3.8303283546119928 -1.2628278378397226 116 110 96
3.8391648677643389 4.2198732607066631 -1.1212711129337549 92 32 21
3.7130316342227161 3.7739836107939482 -1.2991728871129453 91 37 25
3.9322758489288390 2.7411852180957794 -1.1405445965938270 197 191 179
4.1559430356137455 3.4483048748224974 -1.3594067348167300 105 84 63
3.4724157014861703 3.9965047705918550 -1.2436826685443521 122 103 88
3.9596015952993184 4.3864552946761250 -1.0489465533755720 37 40 75
3.4221061316784471 4.7741149635985494 -0.9593422310426831 84 65 59
4.3210384913254529 3.1107547497376800 -1.3080814662389457 122 115 109
4.3501764985267073 3.3046166719868779 -1.3220820277929306 23 31 70
4.4303346057422459 2.9531180411577225 -1.2543968851678073 104 104 96
3.2481162217445672 4.6286465143784881 -1.0098408954218030 58 47 45
4.3741578876506537 2.9362683203071356 -1.2636635191738605 90 85 79
4.1637604793068022 2.8313215766102076 -1.2817499348893762 161 154 148
3.8895107586868107 2.6704531451687217 -1.1227740691974759 81 78 69
2.8607591930776834 4.3494124365970492 -0.6384699330665171 125 117 114
3.8407309392932802 3.7400476299226284 -1.3034503436647356 134 131 126
4.2381707187741995 3.5643509645015001 -1.3050823691301048 25 23 60
4.7817870394792408 3.1540887281298637 -1.0987248420715332 197 196 192
3.9862580802291632 2.7603002283722162 -1.2050531785935163 210 206 197
4.3640323355793953 3.0041261725127697 -1.2884693336673081 231 227 226
4.1835826092865318 4.0416097380220890 -1.0861070225946605 67 69 82
3.5773029807023704 3.8976845098659396 -1.2733261971734464 115 111 100
3.9041013184469193 2.6977111492305994 -1.1312236487865448 80 68 54
4.3620395574253052 2.9076271671801805 -1.2444686591625214 102 92 82
4.3200372771825641 2.8740131119266152 -1.1979836253449321 91 82 75
3.9879858752246946 4.2725273100659251 -1.0712886257097125 136 84 70
4.2178579540923238 2.8458474138751626 -1.2662229668349028 82 73 64
3.9257918617222458 2.7307225037366152 -1.1429350255057216 66 55 51
3.2594306615646929 4.7899389984086156 -0.9510662169195712 47 39 36
3.5737503753043711 4.0915932804346085 -1.2130796024575830 119 110 101
3.8863620727788657 4.3934091236442327 -1.0676334793679416 124 121 130
4.6687716518063098 2.5742053696885705 0.2580688348971307 91 91 89
4.8085541410837322 2.1635876651853323 -0.8671053578145802 195 187 174
3.6486572150606662 3.9543168330565095 -1.2424920159392059 111 111 103
3.8009725664742291 2.5300636030733585 -0.8826769161969423 156 156 148
4.3922227434813976 1.8717752592638135 -0.5963252815417945 101 95 73
3.1587454539258033 3.2566086612641811 -0.2578198523260653 119 111 100
4.7602193122729659 3.2281188182532787 -1.1377488309517503 82 69 63
4.7133285617455840 2.3102871701121330 -0.8483140887692571 253 254 255
3.7328546801581979 3.7286137435585260 -1.2999427965842187 77 55 42
3.7645374119747430 4.3010369641706347 -1.1134721203707159 36 36 70
4.6756929757539183 2.3005341878160834 -0.8720319615676999 126 119 101
3.7949405163526535 4.3374533997848630 -1.1041890666820109 33 32 63
4.7396608130075037 2.4728250168263912 -0.9165846495889127 106 103 96
3.8370655602775514 2.5630177641287446 -0.9951873579993844 160 157 150
4.2237275880761445 4.1647863537073135 -1.0234417975880206 112 48 36
3.6791060084942728 3.7200624449178576 -1.3400164884515107 110 103 95
3.8482634006068110 4.4115306297317147 -1.0679082344286144 136 126 127
4.8889050178695470 2.6339199729263783 -0.3710188800469041 95 95 87
4.5030387197621167 2.7514564394950867 -1.1672815680503845 82 82 80
4.6085312224458903 3.1689515104517341 -1.2430522288195789 92 81 77
4.4965754323638976 3.1231526825577021 -1.2648722305893898 169 123 63
4.3497276655398309 4.1383101614192128 -0.9926506751216948 113 110 127
4.7977737265173346 3.2131313225254416 -1.0949550317600369 159 152 146
4.8621352834161371 2.7444133032113314 -0.0123397982679307 134 136 133
3.8605515758972615 3.9825161676853895 -1.1943862470798194 27 27 63
4.7498771208338439 2.3448809562250972 -0.8575659994967282 134 130 118
4.2899090042337775 3.0844526691362262 -1.3255822565406561 91 82 83
4.3379325324203819 3.1207462064921856 -1.3162885354831815 36 39 48
4.7973068156279624 2.1820324696600437 -0.9298740564845502 79 73 49
4.3087780671194196 3.0767299411818385 -1.3284259201027453 253 255 254
3.8005354872439057 4.2061898456886411 -1.1488015549257398 101 44 27
3.6931736718397588 4.8717315103858709 -0.8811038043349981 131 130 126
2.5315897150430828 4.3301036125048995 0.7027475149370730 120 109 91
2.7802241863682866 3.8135505421087146 0.2358556785620749 143 124 81
2.7436025370843709 3.9019236611202359 0.2665623882785439 144 125 82
4.3452122788876295 3.0941545087844133 -1.3161298227496445 162 158 155
3.7880419625435024 2.3847628841176629 -0.6639599949121475 54 55 47
4.3493180871009827 2.0329200681298971 -0.6095485417172313 107 103 65
2.7721595992334187 4.2935126796364784 -0.2234948077239096 67 64 83
3.9578242169227451 4.2268562093377113 -1.1082008085213602 137 136 134
4.1547219774220139 2.2775985877960920 0.2177201458252966 49 46 39
2.8226409894414246 4.3599307816475630 -0.5380904586054385 114 106 95
4.4165219464339316 1.8497715331614017 -0.6051686727441847 129 114 59
4.3646677266806364 3.0688874442130327 -1.3086124756373465 94 85 76
3.5385215254500508 4.0725126275792718 -1.2175581580959260 66 58 47
3.1629235090222210 3.0156012056395411 -0.0125303035601974 33 33 57
4.0099791227839887 4.3782961005344987 -1.0128749310970306 150 146 143
12.9041272739414126 7.4974875841289759 6.2952437475323677 37 37 35
11.6243466923478991 -1.5289762560278177 11.8899146290495992 89 83 69
15.9831420683767647 8.8172915531322360 8.1572871478274465 60 61 56
3.9132001376710832 4.2827067980542779 -1.0777360918000340 131 69 56
4.2835138053633273 2.3636341281235218 0.3129525263793766 103 103 95
3.8147269368637353 2.2826002100482583 -0.0603561084717512 189 189 179
13.4646587644238025 6.8119311127811670 6.8357075634412467 124 123 118
4.3458875275682658 3.4105231873691082 -1.3041474847123027 148 127 60
4.7333877687342465 2.3326960932463408 -0.7754698437638581 255 255 255
4.1074779096525162 4.3456195592880249 -0.9524663821794093 144 140 92
4.5557179211173207 2.2880534790456295 -0.8074308913201094 255 255 255
4.5951392652932554 2.3446171106770635 -0.8394520408473909 66 64 65
11.9070377736352384 7.6916278544813395 4.8252225071191788 169 165 162
4.0863503124564886 4.8732839887961745 -0.7501379698514938 88 88 86
4.2198738316074014 4.4560659294947982 -0.9164255447685719 124 108 95
3.8781395868863910 2.2863340359181166 -0.0130020198412240 115 111 110
14.2988497661426663 7.1574844289571047 7.1338719404302537 32 33 28
4.4837025690358132 2.1106098778545856 -0.8355029299855232 43 43 35
13.1703614587895572 7.2553261034190655 6.7059694067575037 37 37 35
2.7403294411487877 4.0187636287882924 0.2495737303979695 89 76 60
11.2874552500434220 7.7680318104103208 4.6633778973482549 39 41 38
3.7038925788365304 4.0501728709787130 -1.2027814160101116 126 110 74
4.3558715942781419 2.9001852953806520 -1.0292644118890166 181 176 172
11.2052661527413875 7.8075391128659248 4.0935711381025612 36 37 31
10.7007888713851571 7.1542376391589642 3.6842683032155037 64 64 62
3.8536628077272326 2.7404532888904214 -1.1569826877675951 188 170 84
3.1414057740475982 4.7505151387304068 -0.9648337285034359 139 100 69
3.2142750234343112 3.5348773356527090 -0.8314526872709394 38 39 60
4.0551389111205935 2.8324632216244936 -1.2249779887497425 116 114 101
3.2157687416765839 4.8443883098661900 -0.9317960506305099 121 74 56
3.7159422468394041 4.3635894339531660 -1.0798105602152646 125 121 120
4.0350051245186478 2.8409498613327742 -1.2910290467552841 199 199 191
4.3884085374884307 3.1699628783389926 -1.3142700847238302 149 143 127
3.3359998622909188 5.0141281420364976 -0.8437078241258860 52 49 30
3.6545252020005137 2.3448050525039434 -0.2768968380987644 155 149 137
4.3379729578737170 3.1502344943583012 -1.3338961442932487 45 40 36
3.3718524186406285 4.1836698772385716 -1.1554144155234098 54 43 47
4.3172734701074660 2.9878469463437796 -1.2911657337099314 132 130 133
3.9762517022900283 2.6363189639523625 -1.0290188076905906 182 181 176
4.1686100352089852 4.9050574637949467 -0.7251425082795322 61 60 58
4.4291194614488631 3.2070422107353806 -1.3079956141300499 150 151 133
4.2223682727199048 2.8394546341150999 -1.2713067210279405 151 148 139
3.3553323075175285 4.2109672240912914 -1.1532210977748036 62 41 36
3.9103042283095419 3.9273529909551144 -1.1919026286341250 134 126 124
4.4433426407631487 3.2252525137737393 -1.3002988602966070 153 140 105
3.6850181466434151 2.3976399693638086 -0.5050510820001364 94 90 79
3.7209684890694916 3.7791627701371908 -1.3111547068692744 90 30 19
4.4142679809592664 3.2135418187826872 -1.3035778612829745 90 78 78
3.5304934873711318 4.6887435857206583 -0.9844670235179365 97 80 72
3.6856777535285801 2.4858406232669950 -0.6797341704368591 182 182 170
3.6458808493334800 3.7522368514910340 -1.3160923062823713 82 39 23
3.7955768241081387 3.8321956470608711 -1.2781844157725573 106 57 40
3.8684627595357597 2.5356262233108282 -0.5117562175728381 105 98 88
3.3384301813784987 4.2496628742665052 -1.1401989902369678 97 86 80
4.0948082376271486 2.7784390337765217 -1.2657851628027856 92 87 81
3.9509873120114207 2.7767834439873695 -1.2013760185800493 155 151 139
3.1191337690688670 5.0949847185984254 -0.8239649324677885 82 68 41
3.8973444260191172 4.2399622928351164 -1.1064182962290943 102 35 26
4.4009184218011796 2.9402102772146463 -1.2540243384428322 99 96 87
3.4083138105925173 4.6217718468979001 -1.0138601609505713 94 85 76
3.0279336788225919 5.0462697083130479 -0.8588255173526704 136 103 72
3.0380286094732583 5.0610680086538196 -0.8515447215177119 80 53 32
3.9284290855284780 4.2725038798525929 -1.0921295690350235 134 124 115
3.3113528480753303 4.3625899394974113 -1.0960420258343220 74 59 54
2.9949794381391257 5.1713124448433518 -0.8117024134844542 128 84 57
3.7166563065256923 2.4237217390909791 -0.6887557371519506 78 71 63
4.2457914457190782 3.2272068494930863 -1.3571909242309630 134 136 157
4.2643929142504930 2.8825448295101523 -1.2708139335736632 103 98 92
3.9653274712618440 2.7983504533767700 -1.2326913112774491 231 206 124
4.1108745101373643 2.8596428195014596 -1.3043209151364863 140 139 137
3.9401141039561480 2.7925749626010656 -1.2531526801176369 218 192 108
4.4095588747877628 2.9079161388799548 -0.7932323552668095 103 103 95
2.8823899107519537 4.2618380114436150 -0.5830733068287373 121 119 124
3.8129877527244389 4.2009245334193110 -1.1270806328393519 125 116 107
4.0350916520692408 2.8493719901889563 -1.2685781861655414 192 189 184
3.6278539183549583 2.3914491953328252 -0.4040331309661269 151 144 134
3.9387395442463458 4.3069884898141026 -1.0829688129015267 160 136 126
4.1617770572192967 3.9482989702373743 -1.1322013088501990 125 112 106
3.1243192153051496 3.6461721044033766 -0.5994609133340418 136 121 114
3.6793208050075918 2.5337117379531264 -0.8156018918380141 115 112 97
3.6558918496593833 2.9478685772046447 -1.2479722611606121 142 119 52
3.6248033971060067 2.5020172270014882 -0.8014555713161826 144 139 109
2.4688942567445338 4.4872601181268692 0.6341950264759362 136 104 91
4.0293652948457748 2.8605808261781931 -1.3092135288752615 113 109 100
3.2384430854581296 3.5040883738547564 -0.8816270637325943 122 117 114
3.6003898992203176 4.8122352566570044 -0.9099341221153736 68 67 63
3.8712092472705990 2.6871626004576683 -1.1212638975121081 122 118 109
4.1348392115905881 2.8269270649179816 -1.2836056444793940 81 76 73
4.6138809097465128 3.1595206493511796 -1.2666625077836215 95 90 94
3.4653708862606436 4.7080346206203103 -0.9754563500173390 52 44 41
3.8917056294158101 2.6990657728165388 -1.1224066759459674 65 55 43
4.4171143528074026 2.9675596859306097 -1.2558549484238029 139 136 129
4.0780721968039870 2.8481061607599258 -1.3027414996176958 140 136 127
5.3131128954701126 1.9686232861131430 0.1852457760833204 87 84 53
3.9920700429938734 3.8552736332640052 -1.2102348492480814 103 46 29
3.7403888425324112 4.1821138458326459 -1.1451917449012399 86 29 22
4.1538954190909863 3.9683386767283082 -1.1262405188754201 127 119 116
3.4281412085983902 4.7019284851849079 -0.9675431782379746 62 54 51
3.8529604030773044 3.9662339054048061 -1.1983946724794805 117 115 118
3.7808448255527765 2.5918966773897409 -0.9497459116391838 70 63 53
3.8196970792487264 3.7465483043342829 -1.3002464924938977 134 130 121
3.2166623715311289 3.2804685728624463 -0.5794218233786523 130 125 122
4.6821914196480066 3.0725435083732009 -1.1420462238602340 159 156 151
3.4956663388293236 4.7960720444098115 -0.9354613991454244 129 120 91
3.8066572421230376 4.2381869256496429 -1.1219523260369897 100 45 25
4.5020297307055444 2.0705502182245255 -1.0398586434312165 156 141 82
3.6852674768306315 3.8556861700490117 -1.2727153715677559 25 19 47
3.9326675289776176 2.7338028941303492 -1.1590324160642922 204 199 193
4.2056034819688648 4.0042842496186495 -1.0944014606066048 90 33 22
3.3778833972755820 4.6870678225532174 -0.9726166683249176 66 53 47
3.8768129206728190 3.8088124142959714 -1.2635226305574179 132 122 120
3.9155274832155555 2.6760314730927348 -1.1225768062286079 88 78 69
4.7394406069070101 2.2483314890414476 -0.8953456399030983 124 117 107
3.8961708806455135 3.8223375426605344 -1.2461505080573261 93 41 28
3.8652590662240982 4.2942437008023262 -1.1025055847130716 144 104 94
4.5573069907259196 1.9083361513912678 -0.5891186050139368 102 92 43
4.3944160391110927 3.5408250959590077 -1.2754883016459644 33 21 31
3.3322102592792362 4.6509680692106485 -1.0110546378418803 96 87 80
3.6458509764634073 3.8449311032891273 -1.2873005438596010 18 16 40
3.8650976025965065 4.3026863364502788 -1.1009076288901269 93 34 18
3.9861204889602959 2.7289888188242912 -1.1818986213766038 86 77 68
3.6973639929201454 2.3844073191285133 -0.5056839599274099 94 90 79
2.8585263655986637 4.3158785775303841 -0.5875477660447359 120 113 121
4.3390730849932879 2.9371469328179955 -1.2633515009656549 117 112 108
4.1384881169069558 2.8851566351950169 -1.3092810134403408 132 131 127
3.8510553035885096 3.2959782909601927 -1.4502895278856158 76 62 53
4.8470036590006202 1.9602846931666136 -0.4005569228902459 170 153 73
3.7037291848100722 3.8939005797728896 -1.2572768246755004 106 102 116
3.9191835268866271 3.8476886460557580 -1.2268604398705065 86 35 18
4.0969323723111302 2.9349603829905391 -1.3433748795650899 205 204 200
4.3123337656725198 2.9328600754961371 -1.2726665250957012 110 105 99
3.7792194865178317 2.6121629560366273 -1.0065060053020716 109 105 93
4.0601142589002848 2.7924385135993361 -1.2553131012246013 184 185 177
3.8547918002586812 4.3045383021235466 -1.1005308567546308 134 120 109
4.0412220812868327 2.8907964816316962 -1.3317509368062019 109 105 96
3.4563806455116719 4.7968970667570829 -0.9306095247156918 63 57 45
3.6039580672513694 2.4211893407627940 -0.4754119291901588 68 57 39
4.0303322996478528 2.7791540753096342 -1.2449047747068107 100 93 87
3.7900733605492860 4.2753431862220168 -1.1152287279255688 92 30 17
3.3235047380439937 4.6784811010584235 -0.9922262034378946 35 24 20
3.9959752745926380 2.7548558870330453 -1.2091595386154950 66 58 45
4.2256166746374220 2.8943894002586603 -1.2713880212977529 98 93 89
4.0311777973547578 2.8892866251990199 -1.3291281112469733 106 101 95
3.7347321028355509 2.5682632094249129 -0.9384128628298640 100 98 85
4.5722922666464001 2.1388104371726513 -0.9142568265087903 106 100 64
3.9679349015932530 2.7759088166058064 -1.2173322103917599 222 217 213
3.6826301913242787 4.2046563215553761 -1.1468392256647348 100 54 41
4.0652701323851943 2.8099810974672437 -1.2639518147334456 89 84 81
3.8653717255219817 4.3521467549726367 -1.0863096714019775 28 27 58
3.9943716444540769 2.7501030275598168 -1.1980308131314814 94 87 79
3.7451961783226579 4.2471683314070106 -1.1245001610368490 111 104 96
4.3684686003252864 2.9693807149305940 -1.2658588443882763 132 129 124
3.8177503251936287 4.3271899810060859 -1.0978110958822072 19 16 37
3.9265908987727016 2.7405970860272646 -1.1609713267534971 110 106 97
3.8781959067564458 4.3791420711204410 -1.0739051927812397 122 121 127
3.3656803779304028 3.0107624810189009 -0.7262776633724570 14 14 6
3.4098604456521571 4.8111805254593492 -0.9282595030963421 129 94 66
3.8363516074605286 3.8184616118669510 -1.2602755953557789 93 37 22
3.7849441515281796 2.5786246126517653 -0.9554672115482390 66 57 48
3.1833353303372860 4.6111413985490799 -1.0089450990781188 68 52 52
3.7865641310345381 4.3148893751204014 -1.1047820439562201 15 9 43
4.4205599273554981 3.1864339988678694 -1.3098648018203676 44 39 36
3.6801063066814095 2.3581178663298488 -0.3939734245650470 103 100 91
3.8132117339409888 4.3445793213322759 -1.0930577754043043 17 14 45
3.9764035793486983 3.7930931327864528 -1.2404054757207632 119 107 95
4.4023136848118156 3.1055975565686822 -1.2805357072502375 204 203 198
4.3913460541516542 2.9861715799197555 -1.2738193511031568 223 222 218
3.7873648379463702 3.7907858164981008 -1.2542993267998099 87 39 29
3.8112389252055436 3.8089703638106585 -1.2690606541000307 95 33 20
3.8148819794878364 2.6215814799070358 -1.0493133882991970 82 74 61
3.9577330993488431 2.7585483891889453 -1.1539587932638824 124 120 109
3.8159799636341631 3.8311201520264149 -1.2581508955918252 96 39 28
4.1997856979724020 2.9290776634588838 -1.3086279868148267 216 215 211
4.1725393948145211 3.9316347381100059 -1.1375622712075710 123 112 106
3.7151196089107543 4.2857904499396682 -1.1190004171803594 14 11 38
3.2549860400613397 4.7287296121940017 -0.9609638298861682 50 41 26
3.9670060831122100 3.8117607813328505 -1.2355316230095923 185 140 134
4.2242783366236836 3.1208991305902600 -1.3575662868097425 129 121 110
3.6843223553150892 2.3855619002133608 -0.4741365793161094 95 92 83
3.3676013783551753 4.8588920962065458 -0.9108843225985765 53 40 31
4.1782156589906663 2.8176646735519171 -1.2822605911642313 151 144 136
3.6454844120889902 3.9093562653288245 -1.2636501463130116 23 16 47
4.2704646391794086 4.0227906508371234 -1.0644613732583821 99 33 21
3.2588500191923231 4.7542701605707407 -0.9650784977711737 126 90 66
3.7990764512214810 4.3780202092602849 -1.0880584144033492 16 17 47
3.2291985873598605 4.7023568125441670 -0.9824691354297101 136 106 70
3.9783909383695573 2.7962716715410352 -1.2527593038976192 140 138 123
4.0841193352825940 4.0013742260634899 -1.1276370259001851 139 127 115
3.2206747990567237 4.7067924980074167 -0.9868810726329684 76 55 34
3.6517135216854513 3.9194539207965136 -1.2589083146303892 110 109 107
3.7242272768635303 2.5426036464050412 -0.8237985414452851 94 88 74
3.8961649164557457 2.6319481357932091 -1.1165059250779450 157 152 146
3.6246149986982346 3.9003066159784794 -1.2673017908819020 17 15 37
3.8057592345867306 4.4029156398028135 -1.0843122163787484 162 154 151
3.1654825094155967 4.6965098241344094 -0.9851606250740588 134 97 70
3.6112038281280547 3.8937664488330483 -1.2703998349606991 18 19 40
3.7403326828498393 2.5959521709010005 -0.9809339442290366 85 79 67
3.7675160099752247 4.3756856014952064 -1.0897046639584005 111 111 113
4.6932521692942828 2.5402264846488833 0.2497459109872580 72 72 70
3.2133220161776990 4.7658202201128006 -0.9611478168517351 136 97 66
3.7023275187239051 3.7578291594982147 -1.3062043031677604 122 106 107
3.3530905672814697 4.9425749192014337 -0.8724280102178454 58 55 36
3.2233492296654731 4.8285247525200248 -0.9369074590504169 122 86 60
4.0464237330015749 2.8145004073157907 -1.2721615298651159 109 109 97
4.2622168236412108 4.0565875396132469 -1.0559307318180799 23 23 49
3.7661289251409471 3.8117069331929088 -1.2554868441075087 139 97 83
3.6993542953860015 3.9922890998423100 -1.2206293614581227 129 103 88
4.2529341157060117 2.8627003896981478 -1.2752036000601947 92 79 71
3.8450588064733893 3.9780156230553985 -1.2051887619309127 54 53 67
4.4707385909277946 2.4968965947628021 -1.0746144037693739 86 85 93
3.2086371725890785 3.5366286728531122 -0.8235443821176887 125 120 124
3.7706946006510407 4.3240168243646622 -1.1002321350388229 29 29 55
2.8716473805252463 5.4457208393141627 -0.6509755388833582 76 45 25
3.8639534716494381 2.7243319684639573 -1.1565493685193360 138 132 120
3.8140560586471111 3.8018898805603385 -1.2728485646657646 91 42 28
3.7839629717636853 3.7802583547309041 -1.2828401136212051 111 102 93
3.8876721195410937 2.7168538821861148 -1.1506237783469260 107 100 94
3.6411016853526235 3.8925037290900946 -1.2753493213094771 25 27 52
4.8187416109722108 2.7436603400856256 -0.4999412903562188 155 161 173
3.6522465930320323 2.4402260854840279 -0.6198286372236907 107 103 94
3.5649054290261120 2.9468573071062565 -1.1631149807944894 132 112 59
4.1581691999454051 3.3552038595080376 -1.3712430913001299 32 25 41
3.5386204191017896 4.1952219959348440 -1.1728523662313819 132 124 113
3.8502617897465825 2.5213416749611497 -0.7565370216034353 145 142 135
3.7028569390531629 2.3970900401473045 -0.5761363231576979 66 57 48
4.3745987291913480 2.9964666506275535 -1.2884774589911103 155 155 157
3.9331943613942713 2.7364169089123607 -1.1804008441977203 120 118 105
4.9230215067509562 2.0457768747583032 -0.9679251476190984 190 173 93
3.9791582117322832 5.3157200887799263 -0.5985203618183732 88 88 86
3.8529936126433313 2.2952355239540339 0.1198184872046113 178 170 159
3.3381796404719353 3.0493634901940823 -0.6976687964051962 137 137 135
3.8917176439426839 2.6164686521515250 -1.0810273014940321 149 146 139
4.7045549454633147 2.2532297009602189 -0.9106244584545493 236 234 237
4.1477448898367584 4.9291669996455312 -0.7168531976640224 132 130 131
5.0048543338198215 2.8816363615915179 -0.2968466836027801 173 172 168
3.6563000059686601 3.9081976357847452 -1.2553773536346853 26 22 57
4.0675616727676243 4.2147368853911757 -1.0500834793783724 118 56 33
4.0053461017087102 3.8135651387274265 -1.2255480224266648 95 42 26
4.2915215385146439 4.0471368227154016 -1.0470325411297381 134 129 123
3.7407999001443386 3.7655402310192585 -1.3053271458484232 98 44 32
2.6231447407044470 4.4431095412001014 0.0621062191203237 115 108 92
3.9035956123843789 4.2528671575710177 -1.1038390211760998 119 60 44
3.1561706282664090 3.0860079359263182 -0.0380075485445559 118 107 103
3.8371200035326183 4.2334561739116907 -1.1018194425851107 135 79 64
3.9697708550374955 3.8044818146154284 -1.2282077819108963 100 44 29
4.5866166884079576 2.5299029564484954 0.2887677475810051 115 110 104
3.6306443321518600 3.8481789156794548 -1.3030876806005836 30 28 50
3.8365424668882042 3.8940614219754934 -1.2257860414683819 112 109 104
4.7072884526569396 2.1660503502935171 -0.6391468741931021 59 59 47
3.6480741472914815 3.8181900801137090 -1.2911944272927940 109 101 98
3.1842055427841842 3.2580898934975266 -0.3807295332662761 127 120 110
4.3954381723888218 3.1130431182682514 -1.2838480002246797 164 167 160
4.4763767896220088 1.6805739495903254 -0.6287989201955497 33 33 25
16.6374642318114638 7.6863766731694341 9.9110166868194938 57 59 58
4.0430328757502139 2.9137397650629282 -1.3772336593829095 171 167 166
3.8884703686926514 3.8766895448789001 -1.2179250419139862 101 45 28
4.9210631377063692 2.0205137478187680 -0.9517672164365649 185 174 92
11.2959861075505614 7.5646847002208233 5.1853346233256161 177 176 172
3.4313276687171310 2.6797847524285316 0.3327308534644544 25 27 50
3.8079502698965371 6.0179740441963077 -0.3330627107061446 214 212 213
3.4172394250053912 2.8049911083653569 -0.7226982270367444 125 111 40
4.6153928521089256 2.4128661192953587 -0.2895291517488658 39 36 31
3.8925122057553381 2.7132258052006364 -1.1468889079988003 93 91 78
4.0431243376806378 2.8372022937983274 -1.2281380044296384 196 193 186
4.6961744092404842 3.1456265375018120 -1.1555010112933815 191 190 188
4.0262576318345964 2.7334153456613421 -1.2281344002112746 158 154 145
4.0772238890640438 5.1136588836088777 -0.6622049114666879 63 64 58
3.9226764910854399 2.7405371088534594 -1.1401631813496351 77 71 59
3.9405942473094910 4.2681431937962770 -1.0884456448256969 111 52 44
3.6669641754124314 2.4210990434512496 -0.5750840385444462 88 86 74
4.2908941761124879 3.9231180418282747 -1.1317645669914782 126 96 86
3.9347501466982067 4.3175529940053821 -1.0832592612132430 167 140 131
3.7867801317479461 2.5127027602866292 -0.8408469911664724 144 140 129
3.3583364952355623 3.2822521207854152 -1.0397517401725054 38 36 37
3.7320638047531247 4.1760305175557733 -1.1468709059990942 138 129 120
3.6283170725218952 2.3967524711042643 -0.3852255903184414 67 55 43
4.7144572245888412 2.2775639500468969 -0.9133112300187349 247 253 251
3.9794882801361382 2.7624483238905668 -1.2140160878188908 217 213 204
3.7326576111372560 2.6176048675552011 -1.0141503000631928 131 117 56
3.7212518875021487 4.1840093014761806 -1.1481319661252201 135 97 84
4.7462368437554687 2.3658373029902577 -0.8743450557813048 131 127 118
3.8459009437356144 4.2784608490765095 -1.1059769182465971 99 48 31
3.9850999768823385 2.8409116733819246 -1.2911494965665042 101 94 68
4.0780188348144293 4.0265069659799337 -1.1161912931129336 132 127 123
3.9009432618040591 2.7059894250705838 -1.1433591730892658 211 208 203
4.2895686961710453 4.0237946324050426 -1.0661764373071492 109 46 29
3.8474533611442894 2.6137987682595849 -1.0518198981881142 213 213 201
4.3085419391281903 2.9521723696961999 -1.2773654665797949 107 106 101
4.2032387282233685 2.9428382012993097 -1.3072371426969767 220 219 217
3.1761119253933430 3.2400447698310018 -0.2865787111222744 127 117 107
3.6885262869764119 2.4929529186338186 -0.7618572134524584 105 103 91
4.3493349137715995 4.0801370413973927 -1.0186706264503300 25 24 56
4.2803988414816558 3.9976749466732144 -1.0761440373025835 122 113 104
4.5499855079688132 3.1590976035222411 -1.2482014507986605 103 96 103
4.1160061366390437 4.0633728103712201 -1.0953053780831397 140 137 148
3.1237462749704719 3.7892779847607017 -0.8386431611143053 46 40 40
4.1032389944884926 3.9023620756343007 -1.1711147050373256 81 35 19
3.7906966572627425 4.2797666816040874 -1.1227572094649076 135 108 97
4.2132566163782030 2.9517236473038793 -1.3139416943304241 148 147 143
4.6674356895964593 3.1074432786554098 -1.1556844995357096 158 157 152
4.3350935159251094 4.0719987135380507 -1.0219192421063781 150 146 145
3.7323096415493637 2.5528719294816256 -0.8731727194972336 93 91 79
4.1242104263510555 4.0800258014351130 -1.0866139233112335 21 20 54
4.2404513899236917 4.0135423196479678 -1.0851171105168760 86 33 19
3.7068861003499478 4.2351568127050996 -1.1334364451467991 122 99 83
3.9268277108203620 2.6992344362661242 -1.1811442803591490 237 236 231
3.8380269596818835 2.7121058981865644 -1.1356413052417338 183 180 161
4.4480603793635964 3.1889031194150448 -1.3040692247450352 146 98 49
4.2435832177288830 3.1033725058659911 -1.3588558505289257 44 37 45
4.8658730369061232 2.4877962013706565 -0.2679919539950788 116 116 114
3.3009922078344971 3.4008034523576498 -0.9347947672940791 90 90 102
3.8505534310825169 4.2363672954961658 -1.1152135613374412 128 121 111
3.1637316909618676 3.0071530807763338 0.0472807558253407 111 106 102
4.5361686807591468 3.1737509481608868 -1.2642657132819295 104 98 108
4.0241375635378063 2.8573778616264462 -1.2966358773410320 196 193 184
3.2266721047926694 3.3466022396460176 -0.6056761522777379 135 131 122
3.4684541937895119 4.6460008155554533 -1.0024127587676048 97 90 84
3.5343738119117916 4.7056003930047154 -1.0212622312828898 69 65 62
4.3830143734812737 2.9547137534245849 -1.2332176673226058 109 104 98
3.4293877952732146 4.6163742588832974 -1.0175202200189233 38 29 24
4.4415970491245389 1.7265169238671660 -0.6952736056409776 126 115 59
5.2684567407704890 3.2176028313115239 -0.1690015229396522 108 103 100
4.4623308049049228 3.0354321878403425 -1.2595834014937282 231 230 225
3.4505837548058480 4.0888142921030521 -1.1853858386166394 132 116 100
4.3126031614374369 4.1083859652280807 -1.0164478984661400 146 146 156
4.2070166193880141 2.9164244020357728 -1.3009402295574546 216 212 209
3.2307341471314430 3.4195970343425870 -0.7559624207206070 46 49 68
3.7645976468920708 4.3664710177108645 -1.0920978598296642 13 13 39
4.1803930823225528 2.9544456079602242 -1.3205782435834408 135 133 134
4.1805923921056092 2.6695455824956298 -1.1944541702978313 44 45 40
4.6462774996180087 3.1122200461104512 -1.1778855505399406 209 208 204
3.6376890363171697 2.5307123400270939 -0.7698023817501962 169 145 59
3.7153791617602110 3.7281476221978664 -1.3110270397737622 60 38 27
3.6899883032310754 3.7700427649542689 -1.2995836082845926 83 31 20
3.7218825474847108 3.7376463264226913 -1.3081121449358761 117 110 102
3.9491278715431690 2.4487914042547345 -0.3441528021357954 165 162 153
2.8368900357745588 4.2858027899637818 -0.5009606191888452 52 44 55
4.7835881379432976 3.2347721317782998 -1.1260971035808325 135 118 102
4.1419504443183541 4.0284375008195639 -1.1046811095438898 113 113 123
4.4490263350307941 3.3152021244168282 -1.2948714550584555 140 142 154
4.0967384816613048 2.7844834662973881 -1.2754315459169447 107 102 98
3.9589502457529306 4.4095009472221136 -1.0343756880611181 31 34 69
3.2806154680438340 4.6538945771753788 -0.9971479987725616 93 85 74
4.3839095626026392 1.8735542660579085 -0.6530224685557187 82 80 55
3.8841811737511307 2.6300033461302519 -1.0928334817290306 61 49 33
3.9508673518430442 2.8479924891144037 -1.2751788622699678 225 205 118
3.8137759610544890 3.7883124295622110 -1.2757476298138499 129 122 114
4.2497839711140841 2.8502634512260556 -1.2698963233269751 164 161 154
3.6959584681317210 3.7987785832956433 -1.2920855074189603 86 37 30
4.2466070349328220 3.9790572216734290 -1.0962738338857889 125 110 105
3.8471429850906134 2.5891624949872494 -1.0603553545661271 171 167 156
3.6190363781061023 3.7547451071441174 -1.3148398348130286 120 110 101
3.3295819291379303 4.2939896667376161 -1.1287223692052066 102 97 91
4.1203213953413069 2.9601263292133808 -1.3558583622798324 85 77 75
3.7061488751787692 3.2794168926775455 -1.4203584734350443 71 48 30
3.2894161695148796 4.6640701461583376 -0.9972385782748461 44 35 28
3.7292598022613674 3.2928298227488995 -1.3994473973289132 53 39 28
3.4198161039967090 4.7922821436077356 -0.9351205658167601 128 107 78
4.1963772918097675 2.9206986548379064 -1.3088052463717759 145 145 143
4.2203309482429177 2.8609157931059599 -1.2829359555616975 189 184 178
3.2921937087085098 4.7411780292168260 -0.9640991608612239 77 60 44
3.6951830091420561 4.2380449008196592 -1.1331453369930387 94 41 25
3.7200272874906659 3.3006796026602387 -1.4239488830789924 124 115 110
3.4563331569079310 3.1115655805915594 -1.2242058301344514 30 30 20
3.7740835652220994 2.3936327528208494 -0.6840069857425988 141 142 136
4.4039832628332078 2.0563280265778303 -0.9933742168359458 110 101 42
3.4791226740926504 4.6438174098730087 -0.9990535634569824 40 32 30
3.7577515318989754 4.2972730044275522 -1.1117453286424279 17 13 38
3.6457080706022680 3.7959884628653526 -1.2985313497483730 122 93 77
4.2882155633997172 2.7586032403632998 -0.8370596137829125 158 154 145
2.8466722227167338 4.4047031635418534 -0.5489116581156850 127 116 110
3.2900571157224476 4.7083612540736794 -0.9865541555918753 36 26 17
3.7408599723130465 3.8705583699047565 -1.2305313535034657 138 131 125
3.3931569436099380 4.8267508037388325 -0.9234443041495979 110 81 51
3.8617268581874669 2.6822998141869903 -1.1092256116680801 96 89 81
3.9799588217865676 2.7179686799645424 -1.1745120468549430 95 86 81
3.2725526008289307 4.7278152443468571 -0.9786432576365769 67 50 40
3.7305498644709587 3.8812940316274762 -1.2587754726409912 20 18 42
3.3685587926302105 4.8335958542302251 -0.9236198337748647 52 31 26
4.2645797885488719 3.4162127114832401 -1.3278647409752011 110 98 86
3.7234567918349057 3.8846303448081017 -1.2566712857224047 134 134 146
3.1888809548690915 4.6908400608226657 -0.9983988692983985 47 35 23
3.7337446936871856 3.8931537792086601 -1.2504521668888628 18 15 46
3.8800120817031711 2.6522169215604663 -1.0956876813434064 239 235 226
3.4724274480249733 5.0196879105642438 -0.8255389844998717 60 47 30
3.9576343758963048 2.7124958913773298 -1.1661670571193099 86 78 67
4.1358909176196903 3.9731208197772503 -1.1262088771909475 125 72 58
4.2918125600554049 2.9124357942491770 -1.2706924476660788 119 115 106
3.2343152458779514 4.8257411513477564 -0.9363432447426021 56 36 25
3.2087802682071924 4.8192254416644573 -0.9401339041069150 133 95 72
3.6774665326811373 3.8692577658221126 -1.2688686545006931 14 13 47
3.2506071731913835 4.8698080433532596 -0.9162093326449394 49 30 23
3.2124749058857560 4.8315493641421199 -0.9380571343936026 47 28 14
3.8409290092531592 3.9812361421063542 -1.1959598609246314 108 108 120
3.5871927496045828 3.8054355587810278 -1.3044838849455118 67 39 25
3.1663771462626755 3.5252306712791324 -0.7884774766862392 129 119 110
4.0858417986892164 3.9497365467250347 -1.1552166747860610 114 62 48
3.7192527321167290 3.9034996414557099 -1.2482682992704213 88 85 102
3.2027747207321227 4.8352840794250369 -0.9325664164498448 115 81 56
3.2467480704654008 3.3645808799192309 -0.7751796105876565 135 127 108
4.0754992694128305 2.8613765574991703 -1.3087552436627448 208 203 199
3.8395292486529797 4.4272659644484520 -1.0736949532292783 85 38 20
3.1702716436702758 4.8419253807514906 -0.9319282788783312 76 56 45
3.0691793968435377 3.4514771848917007 -0.2519947201944888 128 122 110
3.0451403255574405 5.1256061289459467 -0.8222780716605484 61 44 24
3.6393858587834984 3.8659903267398477 -1.2779888585209846 12 13 41
3.0515073214191943 5.2105439957231283 -0.7991941557265818 126 94 71
3.2052503710146993 3.5746685955673456 -0.8937301896512508 41 41 67
3.2179808339569718 4.9764939742162824 -0.8758505145087838 52 51 33
3.6364517959300429 2.4588245926424861 -0.6360142151825130 76 73 58
3.8305420433171093 4.4342708587646484 -1.0713142137974501 106 68 57
1.5886490028351545 1.4591686697676778 -1.4779013851657510 78 69 64
3.1995255146175623 4.9606791632249951 -0.8849508049897850 55 53 28
4.6944308420643210 3.0918119139969349 -1.1436505531892180 176 175 171
3.2018340982031077 4.9767428115010262 -0.8775785183534026 59 54 35
3.1864618472754955 4.9711948186159134 -0.8823744305409491 61 57 30
3.3051963734906167 5.1160919107496738 -0.8018237012438476 73 66 38
3.6594660766422749 4.3060660231858492 -1.1173280728980899 26 25 43
2.8740917483810335 5.4115033075213432 -0.6826006611809134 61 37 25
3.0999964422080666 4.9619401330128312 -0.8853639326989651 52 42 32
4.2488754617515951 3.5535511663183570 -1.3083629235625267 122 117 123
3.6651437892578542 2.5074313264340162 -0.7551401550881565 143 137 125
3.2282890679780394 3.3610130120068789 -0.6279677487909794 44 46 71
3.6418559502344579 2.4068651041015983 -0.4944262756034732 74 67 61
3.7391999969258904 2.6013639923185110 -0.9557933527976274 183 176 157
3.6827913932502270 2.3664308888837695 -0.3608081964775920 125 123 111
3.0084346930962056 5.1944755185395479 -0.8020830960012972 120 83 57
4.4739967931527644 3.0655422396957874 -1.2604478937573731 255 255 250
4.9769609777722508 2.0624980349093676 -0.8833185154944658 34 38 15
4.0535093364305794 4.2718567056581378 -1.0458702221512794 109 44 24
4.0908601686824113 2.6719927629455924 -1.1859963107854128 86 85 80
3.3762138672173023 2.8635136913508177 -0.2866879133507609 16 15 11
5.2483243262395263 2.4737972784787416 1.5272678551264107 175 172 165
3.3481110476423055 2.9211694654077291 -0.5426121447235346 21 17 14
4.9340559458360076 2.8219229178503156 -0.1819996223784983 195 190 186
3.7580181730445474 2.4048719182610512 -0.7385731684044003 135 134 129
4.5804317025467753 2.5290866754949093 0.3731661527417600 150 149 145
3.3761094631627202 4.7501086993142962 -0.9631742620840669 121 90 59
3.7831024832557887 2.6116133546456695 -1.0118227484636009 98 96 84
3.7577705292496830 2.5798801574856043 -0.9392915838398039 75 71 60
4.0053981761448085 4.3469889815896749 -1.0316590620204806 158 153 149
4.4941911012865603 2.6783123798668385 -1.0909603233449161 106 103 98
4.7051009417045861 3.7423772113397717 -1.1076677199453115 101 93 90
4.2876262776553631 3.2606960712000728 -1.3460222170688212 139 141 138
3.9601035038940609 2.2832964602857828 0.0240300884470344 146 138 135
3.7284866294357926 2.2930547669529915 -0.3685201858170331 77 72 66
3.7855587759986520 2.4186734342947602 -0.7021931526251137 93 90 83
4.4397280646953732 1.8923113802447915 -0.5838229381479323 96 94 71
3.3460459443740547 4.6554103037342429 -0.9991236766800284 95 86 79
4.4973081757780164 2.9243617001920938 -1.1865805392153561 254 254 254
4.5160957637708634 2.8820648202672601 -1.1335039767436683 81 83 82
4.4222049382515252 2.0439087180420756 -0.8813134618103504 162 153 112
4.0651771419215947 2.9365101857110858 -1.3072662586346269 64 40 28
3.6207817886024714 3.7253025528043509 -1.3253426402807236 110 103 93
4.5006691822782159 1.6775597399100661 -0.6360586402006447 156 133 63
2.8227644767612219 4.4458800423890352 -0.5255610747262836 125 113 101
4.7378880118485540 2.3046210305765271 -0.8798577506095171 182 169 127
4.7675377565901726 2.3509623575955629 -0.8680465342476964 42 43 35
4.0011113521177322 2.8148369081318378 -1.2631197762675583 174 165 100
4.6579800851177424 2.4167573889717460 -0.9080369127914310 147 150 159
3.7603063506539911 2.3008412858471274 -0.1633284422568977 79 80 75
4.4183538181241602 2.3379352847114205 -0.9455237761139870 71 70 75
4.5143264129292220 2.4566631326451898 -1.0068161939270794 73 72 80
4.0849244438577443 5.0769958952441812 -0.6720008640550077 102 102 102
4.3038435222115368 2.0864271037280560 -0.6653609746135771 139 119 69
3.7071541291661561 4.9766211565583944 -0.8219745117239654 40 36 35
4.5020146782044321 2.5540923383086920 0.2569052958860993 154 155 150
2.7971772286109626 4.3084897585213184 -0.3467936231754720 58 56 78
3.9629342756234109 2.7849730188027024 -1.3160887784324586 148 147 142
3.1571476254612207 3.2081109164282680 -0.2095728600397706 50 50 76
4.7930515783373266 2.6208326769992709 0.2093493919819593 178 175 170
3.9895851702895015 4.4169615292921662 -1.0227149873971939 143 143 119
4.6189435829874128 3.6893729278817773 -1.1311786528676748 78 68 56
4.5095223817043006 2.4617660176008940 -1.0180195593275130 104 105 110
5.0002123711165041 3.0168341863900423 -0.6687843441031873 196 193 186
3.7836434282362461 4.7692034924402833 -0.9059397857636213 156 155 153
3.7303958912380040 3.8840922648087144 -1.2604535236023366 51 54 73
4.9955970209557563 2.4488322949036956 1.0335405687801540 46 47 41
3.2181231712456793 3.3706209640949965 -0.6389923994429410 83 86 103
4.6980717789847404 2.3435500338673592 -0.8153534494340420 255 255 255
3.6443201818037778 3.8704304257407784 -1.2720738425850868 33 33 57
2.9932643950451165 3.4247369999065995 0.1424269252456725 127 118 103
4.0758526928257197 2.9514873446896672 -1.2768923831172287 86 63 49
12.1554397831205279 7.1671267766505480 5.2554084560833871 146 142 139
3.0100394908804446 3.2785594426095486 0.2525819097645581 42 41 39
10.6655069421976805 7.4728280752897263 4.3007274060510099 46 51 45
3.0110364218708128 3.6327760685235262 -0.2405552654527128 127 91 55
4.7152239973656833 2.3141487911343575 -0.9697988489642739 36 37 32
14.3859586999751627 6.8638084204867482 7.0942787467502058 113 112 108
4.8352227243594825 2.2403217488899827 -0.8859909400343895 36 37 31
3.6207330569159240 4.2014461345970631 -1.1572244865819812 125 112 78
3.1904841763898730 2.9613287951797247 0.1293328604660928 42 42 68
3.5943983886390924 4.2741627320647240 -1.1289499015547335 127 111 78
3.5026439731009305 3.0479488419368863 -1.1817636769264936 31 32 63
3.5652311965823174 3.5336798187345266 -1.5282074674032629 54 36 26
3.2001135221216828 3.6081489343196154 -0.7908818102441728 115 105 95
3.7357571541797370 4.2957485802471638 -1.1605121740140021 50 47 78
13.6526076314039528 2.8098487397655845 6.2426608125679195 101 100 95
4.7780045419931412 2.1758140968158841 -0.9115508641116321 184 179 157
4.1657076913397759 3.9756158031523228 -1.1204927358776331 86 28 16
3.3585788481868804 4.6718790587037802 -0.9926940859295428 40 33 27
3.5862302209716290 3.7883372297510505 -1.3060463457368314 117 109 98
4.4736487322952598 3.0815754570066929 -1.2744183214381337 203 205 204
2.4914232599548995 4.9735442567616701 -0.1200431571342051 149 88 57
4.9733155171852559 2.0617604497820139 -0.8690470224246383 99 94 62
4.2632287940941751 4.0460725445300341 -1.0588230653665960 123 122 120
4.7237525605596602 2.0317083699628711 -0.7433050740510225 203 194 153
3.9099307446740568 3.8212056281045079 -1.2408669809810817 123 106 98
3.7294400418177247 2.4206096036359668 -0.7104089511558414 91 88 81
3.7180926240980625 4.2534510046243668 -1.1275294111110270 125 107 93
3.7271309900097549 3.9044626075774431 -1.2488058302551508 28 25 56
4.2363992198370397 3.4905777946114540 -1.3286453443579376 29 19 20
3.6854483408387750 4.2350340588018298 -1.1378377662040293 92 32 22
4.8036696508061141 2.1506914617493749 -0.9215428289026022 125 119 85
3.9808556232601404 2.8362978706136346 -1.2732243491336703 119 115 52
3.7131150949280709 3.9074526177719235 -1.2442310135811567 18 18 44
3.3037764022592455 4.6823586868122220 -0.9966978332959116 27 18 13
3.8921124294865876 4.4071248471736908 -1.0632777293212712 141 143 142
4.2314510424621403 3.1221669726073742 -1.3636171696707606 30 26 61
4.1934738303534687 4.0310688605532050 -1.0869347346015275 24 17 35
3.7373168577905744 4.2951296474784613 -1.1114581567235291 26 21 43
4.0833315732888877 3.9193568602204323 -1.1651471769437194 116 113 104
3.9862833914812654 2.3785085221752524 0.3453975222073495 93 87 73
3.2972795614041388 4.6951754670590162 -0.9913979168049991 43 32 26
4.7590128113515675 2.4227875424548984 1.2973757665604353 164 161 156
3.1550487305503339 3.1415690286085010 0.0742151760496199 113 106 98
4.2375673237256706 4.0679042581468821 -1.0596267166547477 126 124 129
3.3030853213276714 4.7173887090757489 -0.9782568449154496 41 32 27
3.1681492410134524 3.4635749096050858 -0.6320965634658933 50 47 74
3.7523553688079119 2.4768629996106029 -0.7940408526919782 182 178 166
3.3996874336153269 4.8118076045066118 -0.9331339807249606 51 35 35
3.9132371146697551 3.8623029189184308 -1.2218741117976606 87 35 22
3.3838856110814959 4.8098760005086660 -0.9307790379971266 70 50 39
3.8203521312680095 4.2713238000869751 -1.1110739400610328 94 36 22
3.6572996736504138 3.9121640035882592 -1.2589757195673883 21 20 52
4.1706526577472687 4.0340719874948263 -1.0957724289037287 25 22 41
4.0321296327747405 2.9481777884066105 -1.3296101158484817 121 94 75
3.3865393961314112 4.8404336832463741 -0.9172934130765498 49 29 18
4.2512086105998605 3.9613892799243331 -1.1041266014799476 124 110 101
3.8501613421831280 2.6632551746442914 -1.0835330798290670 67 63 51
3.7236353827174753 4.3238349417224526 -1.1052076746709645 20 13 47
3.4730791917536408 3.1198632763698697 -1.2068358827382326 114 99 60
3.2500266777351499 4.7434919476509094 -0.9728504857048392 49 29 22
4.3863208037801087 3.2544818129390478 -1.3146373936906457 80 68 78
3.8445093140471727 3.8295909333974123 -1.2511803014203906 131 101 91
2.9033115725032985 3.8400013018399477 -0.1146118007600307 54 48 52
3.6592657323926687 5.0464182663708925 -0.7951800734736025 49 49 41
3.3604302713647485 3.0299885673448443 -0.7474229740910232 23 20 13
4.0159194543957710 4.2094601104035974 -1.0837811189703643 104 37 18
3.6917423317208886 3.7397201554849744 -1.3131107352674007 119 110 103
4.4988816403783858 3.2585708620026708 -1.2823306596837938 60 48 36
3.2248856036458164 4.8168352711945772 -0.9422438745386899 52 32 23
4.2766372920013964 4.1267279535531998 -1.0215324172750115 22 21 52
3.4973222599364817 4.2624742668122053 -1.1525680581107736 82 49 42
3.7215383655857295 2.4170858124271035 -0.6367381289601326 67 63 52
3.9373253099620342 4.4119060104712844 -1.0457998183555901 135 134 139
3.4563449304550886 5.0681693330407143 -0.8046544794924557 56 54 31
4.1986624705605209 4.8728560060262680 -0.7227159659378231 74 74 74
3.2275970941409469 4.8397749271243811 -0.9324016249738634 43 33 23
3.6032063344027847 2.4938929863274097 -0.8281651502475142 155 148 122
4.7746985075064003 3.1669838177040219 -1.1196384681388736 196 196 196
3.8233802309259772 2.6559832124039531 -1.0184294008649886 98 88 78
4.5688732711132616 2.6343477219343185 -0.1689610676839948 108 109 103
3.8650380515027791 3.9712088108062744 -1.1941477805376053 16 16 52
3.3594033636618406 2.6775122750550508 -2.0646978709846735 178 176 164
4.7226939704269171 3.1400365289300680 -1.1393285072408617 118 119 124
3.1616980829276145 3.7016711300238967 -0.8388403453864157 132 131 129
3.3124606539495289 4.9680393338203430 -0.8681175508536398 59 50 35
3.9954467497300357 4.2904536193236709 -1.0580399073660374 107 45 24
3.3304892373271286 4.2806632025167346 -1.1274621193297207 117 99 87
3.3115708674304187 5.0560034466907382 -0.8299267413094640 61 57 30
3.8754681323189288 4.4095313716679811 -1.0670264470390975 25 22 67
4.2250972678884864 3.2358213420957327 -1.3754093837924302 26 29 70
3.9876758921891451 4.3011910365894437 -1.0611328626982868 112 40 26
4.0546822850592434 2.7772341286763549 -1.2474883440881968 83 75 64
3.1945792215410620 4.9925463087856770 -0.8693296075798571 65 60 41
3.1760489586740732 4.9822366209700704 -0.8712105648592114 126 114 76
3.5955101330764592 2.9229297097772360 -1.1773101757280529 136 121 56
4.2191663372796029 4.0032524298876524 -1.0978893977589905 133 117 104
4.2927269919309765 3.3465968696400523 -1.3366222931072116 152 139 84
3.2000928353518248 5.0037749717012048 -0.8665827838703990 128 120 74
4.4200397809036076 2.4686237843707204 0.2638089391402900 97 96 91
3.2523269127123058 5.1016244124621153 -0.8179836850613356 59 59 35
4.1432885020039976 3.9634345564991236 -1.1259857909753919 96 34 23
3.8629088932648301 4.2438413575291634 -1.1118363062851131 92 36 21
4.0657775953877717 2.8804827025160193 -1.5996631351299584 97 92 88
3.9231767556630075 4.2855354696512222 -1.0922141307964921 141 122 118
3.0061866673640907 5.1106918789446354 -0.8319745361804962 71 43 29
3.5213171718642116 4.6793482005596161 -0.9836136209778488 45 31 30
3.7926782923750579 3.8537467606365681 -1.2550015049055219 85 33 20
4.0978151364251971 2.8139304509386420 -1.2749966164119542 190 191 186
4.3283768186811358 2.9327195752412081 -1.2756489529274404 112 109 102
3.6402438268996775 3.7581198997795582 -1.3121525994502008 116 77 60
4.4138497679959983 1.8070003017783165 -0.7086150445975363 145 134 70
4.3819648378994316 3.5257416972890496 -1.2836569803766906 27 27 51
4.4810019657015800 3.0716370530426502 -1.2656759270466864 141 140 138
3.9568280435632914 2.8364542257040739 -1.8106454634107649 216 217 212
3.0042820312082767 5.1765231946483254 -0.8102351860143244 47 36 32
3.6379447488579899 3.7630695505067706 -1.3072947990149260 117 75 59
3.7011940476950258 2.5767302298918366 -1.5106844673864543 107 107 99
3.1822802955284715 3.5476320637390018 -0.7889256617054343 127 122 118
4.7583950781263411 2.8140136646106839 0.0576027981005609 92 88 79
2.9434791840612888 5.2879820363596082 -0.7675760779529810 127 87 61
4.2808727070223540 3.4659968055784702 -1.3220223272219300 18 15 46
3.9204617429058999 2.6005713464692235 -0.7553910743445158 179 177 165
3.8206091001629829 2.6267313770949841 -1.0587292187847197 65 63 51
